  1.01054e-03   6.16943e-04   7.04345e-04   9.36787e-04   8.33506e-04 
  6.59996e-04   5.68848e-04   6.98609e-04   7.89640e-05   6.42853e-05 
  3.97277e-04   2.00293e-04  -1.75606e-03  -4.17842e-03   1.89884e-03 
  5.47416e-03   6.46449e-03  -5.74400e-03  -9.29558e-03  -1.10280e-03 
  7.01046e-04   1.92344e-04   1.45707e-04  -4.45167e-04   1.04158e-03 
  3.18171e-04   2.96304e-04  -1.49288e-03  -9.16335e-04  -1.80718e-03 
  2.55220e-05   1.21001e-03  -1.60922e-03  -3.08301e-03   5.27001e-04 
  2.66316e-03  -7.23674e-03  -3.96314e-04  -3.30914e-03  -3.88170e-05 
  7.02654e-04   2.85259e-05   3.76315e-06  -1.24700e-04   2.27952e-04 
 -1.03864e-03  -3.52172e-04   1.46607e-04  -5.34535e-04  -9.38275e-04 
  8.73692e-04   1.55097e-03   1.32199e-03   3.01564e-04   5.70743e-04 
  5.04312e-04   2.27641e-03  -1.09579e-04   3.87100e-04  -6.41311e-04 
 -8.42623e-04   5.33596e-04   2.59242e-04  -1.41837e-04   2.33847e-04 
 -1.22396e-03  -9.91722e-05   6.73210e-05   3.17281e-04   9.25241e-04 
 -7.77328e-04  -6.55620e-04  -2.22037e-04   2.23649e-05   9.56180e-04 
  6.50781e-04  -3.25537e-04   6.33496e-04  -2.87873e-04  -5.22365e-04 
 -3.64268e-04  -5.24545e-04  -1.61638e-04   8.11909e-04   5.66951e-04 
 -4.83169e-05  -1.40262e-04  -2.85279e-04   1.08962e-03   1.45586e-04 
 -1.90438e-04  -2.76441e-04  -5.85379e-04  -8.69394e-04   3.61078e-04 
 -4.69535e-04   7.86093e-04   3.46645e-04  -4.10818e-04  -1.05315e-04 
 -9.97141e-04  -1.23891e-05   8.65259e-04   1.17813e-03   6.91207e-04 
  1.17942e-03   6.01032e-04   6.35010e-04   7.77822e-04  -1.89989e-04 
 -2.68814e-04  -2.18470e-04  -1.03949e-03  -3.15057e-04  -6.43951e-04 
 -2.06329e-04  -2.85899e-04  -7.49670e-04  -4.23394e-04   5.37448e-04 
  5.56887e-06   5.59269e-04   8.01208e-04   4.04363e-04   6.45213e-04 
  1.50442e-04   4.69819e-04   1.94246e-04   4.22581e-04  -6.48121e-04 
 -2.62999e-04   1.78737e-04  -5.73487e-04  -3.08250e-04  -2.34585e-04 
 -1.03965e-03  -2.07608e-04  -3.53807e-04  -5.31608e-05   6.23358e-04 
 -4.27946e-04   4.22826e-04  -7.89126e-04  -1.85697e-05   4.99833e-04 
 -9.87842e-06   3.59258e-04   1.42536e-05   8.25394e-05   3.28693e-04 
  2.13725e-04   7.57105e-05   5.88998e-05   1.61461e-04   5.13771e-04 
  7.33810e-04  -6.83060e-04  -7.97297e-05   1.10298e-04   2.71106e-04 
  5.66937e-04  -3.73336e-04  -7.19247e-04   1.18820e-04   9.28830e-04 
 -2.09223e-04   4.17859e-04  -9.47078e-04   5.65959e-04  -2.72619e-04 
 -1.03690e-04   3.15600e-04  -4.93984e-04   5.70695e-05   3.92728e-04 
 -1.66436e-04   5.19744e-04   3.82416e-04  -1.74206e-04   3.23653e-04 
 -4.66174e-04   1.10450e-04   5.21534e-04  -5.96403e-04  -4.38497e-04 
 -5.12512e-04  -7.30332e-04  -2.55451e-04  -7.50253e-04  -1.18566e-03 
  6.06544e-06  -1.10010e-04  -6.03088e-04   1.00394e-03   5.98730e-04 
  5.28747e-04   6.41877e-04   4.07315e-04   1.46658e-03  -7.85101e-04 
 -1.87779e-04   3.54411e-04  -2.06863e-04   3.68767e-04   9.26262e-04 
  8.46731e-04   7.91345e-04   8.19442e-04   3.16676e-04   4.79908e-04 
  3.23637e-04  -1.18643e-03   5.26745e-05  -1.09352e-03   8.49184e-05 
 -6.33225e-04  -1.86332e-04   3.33955e-05   5.77299e-04  -1.73965e-05 
  1.69417e-04   2.22817e-04   1.28242e-04   1.60820e-04   3.00966e-05 
 -4.38374e-04   5.57194e-05   4.90675e-05   3.30037e-04   3.72068e-04 
 -5.92763e-04  -2.10217e-05   2.11953e-04  -3.59946e-05   1.29131e-04 
 -2.13005e-04  -4.36314e-04   1.34219e-04  -5.76983e-06  -4.08072e-04 
 -1.65365e-04   5.38232e-04  -4.70506e-04   7.37056e-04  -2.47062e-04 
  1.81429e-05   6.33079e-06  -3.28098e-04   3.75047e-04   5.11245e-04 
 -3.92489e-04   8.67455e-04   2.45576e-04   8.78433e-04   6.90759e-04 
  6.22444e-04   8.54545e-04   7.37961e-04   1.34289e-04   4.71118e-04 
  2.89999e-04  -8.27962e-04   5.06253e-05  -2.35538e-04   3.84388e-04 
  8.79463e-05   6.84981e-04   3.55466e-04   7.73329e-04   8.40898e-05 
 -2.80709e-05  -3.02229e-04  -7.39203e-04   3.91448e-04  -2.77299e-04 
  3.24456e-04  -1.41602e-04  -2.00945e-05   1.97895e-04  -2.86076e-04 
 -6.92165e-05   2.45047e-04   4.14717e-04   7.78500e-04   6.46650e-04 
 -7.47398e-05   3.85231e-04   2.53644e-04  -7.59552e-04  -5.69671e-06 
 -2.52307e-04  -5.06977e-04  -3.46634e-04  -3.76310e-04   4.24777e-04 
 -2.79065e-04   2.35103e-04  -1.99710e-04   7.22904e-04   5.18685e-04 
  6.77420e-04  -2.65076e-04  -4.83189e-04   2.31990e-04   1.35171e-04 
  2.01528e-04   1.38681e-04   1.19556e-04   1.09160e-04   6.41077e-04 
 -1.40685e-04   6.36846e-04   9.98305e-04   3.94985e-03   1.76954e-02 
  5.69178e-02   1.26712e-01   1.72875e-01   7.45418e-02  -2.38017e-01 
 -6.39977e-01  -8.24339e-01  -5.45191e-01   1.68658e-01   9.33154e-01 
  1.23478e+00   8.63732e-01   1.75046e-01  -2.58981e-01  -1.81762e-01 
  1.60191e-01   2.98403e-01  -2.29487e-03  -5.56364e-01  -1.02963e+00 
 -1.25009e+00  -1.16379e+00  -7.64097e-01  -1.93090e-01   3.33406e-01 
  7.64490e-01   1.13480e+00   1.34812e+00   1.24436e+00   7.99167e-01 
  2.04463e-01  -2.56801e-01  -4.37031e-01  -4.09504e-01  -3.30574e-01 
 -2.48347e-01  -1.34868e-01  -4.58173e-02  -7.87717e-02  -2.23564e-01 
 -4.11967e-01  -5.99010e-01  -7.32809e-01  -7.35744e-01  -5.65418e-01 
 -2.22069e-01   2.47688e-01   7.30579e-01   1.10028e+00   1.25375e+00 
  1.16205e+00   8.66893e-01   4.32253e-01  -6.75279e-02  -5.35818e-01 
 -8.56029e-01  -9.50778e-01  -8.13120e-01  -4.98317e-01  -1.12794e-01 
  1.99714e-01   3.24990e-01   2.38125e-01   2.26994e-02  -1.81825e-01 
 -2.66785e-01  -2.06217e-01  -3.86539e-02   1.69253e-01   3.55143e-01 
  4.65609e-01   4.59044e-01   3.19956e-01   8.98588e-02  -1.48273e-01 
 -2.96298e-01  -3.16257e-01  -2.57792e-01  -1.95098e-01  -1.63360e-01 
 -1.45015e-01  -1.10916e-01  -3.04232e-02   1.18524e-01   3.12452e-01 
  4.60773e-01   4.73831e-01   3.33009e-01   9.16520e-02  -1.59367e-01 
 -3.42599e-01  -4.24548e-01  -4.15116e-01  -3.40603e-01  -2.18063e-01 
 -5.89084e-02   1.05508e-01   2.27233e-01   2.73418e-01   2.39035e-01 
  1.51048e-01   5.33546e-02  -2.77469e-02  -7.59423e-02  -8.26116e-02 
 -3.87367e-02   4.07667e-02   1.20342e-01   1.58703e-01   1.45366e-01 
  9.41206e-02   3.22884e-02  -3.31472e-02  -1.10955e-01  -2.03703e-01 
 -2.89015e-01  -3.20622e-01  -2.65771e-01  -1.30678e-01   3.77018e-02 
  1.84765e-01   2.70260e-01   2.82078e-01   2.28038e-01   1.29119e-01 
  1.99706e-02  -7.25740e-02  -1.31801e-01  -1.44079e-01  -1.10884e-01 
 -4.50687e-02   3.24772e-02   9.04457e-02   1.13452e-01   1.02914e-01 
  7.27844e-02   3.53673e-02  -6.86220e-03  -4.99777e-02  -8.52161e-02 
 -1.00769e-01  -9.43112e-02  -6.99403e-02  -3.57137e-02  -9.85717e-03 
 -2.77284e-03  -1.43107e-02  -2.93856e-02  -3.10058e-02  -4.13064e-03 
  4.68639e-02   9.50395e-02   1.11126e-01   8.18963e-02   2.18537e-02 
 -3.13052e-02  -4.50885e-02  -1.49520e-02   3.61920e-02   7.31824e-02 
  7.26480e-02   3.42643e-02  -2.74130e-02  -8.33205e-02  -1.06189e-01 
 -8.61016e-02  -3.24180e-02   1.96964e-02   4.67867e-02   4.32300e-02 
  2.22210e-02   2.59335e-03  -1.38737e-02  -2.83793e-02  -3.88986e-02 
 -4.49077e-02  -4.44613e-02  -3.78888e-02  -2.39546e-02  -1.20261e-03 
  2.65205e-02   5.41935e-02   7.53655e-02   8.01531e-02   6.69937e-02 
  4.15291e-02   1.78836e-02   4.95315e-03   5.07225e-03   5.73633e-03 
 -5.21527e-03  -2.76954e-02  -5.09427e-02  -5.76228e-02  -4.93774e-02 
 -3.58743e-02  -2.82194e-02  -3.01115e-02  -2.96382e-02  -1.90991e-02 
  2.62459e-03   3.09688e-02   5.21506e-02   5.82737e-02   4.91073e-02 
  2.72644e-02   2.10586e-03  -1.75076e-02  -3.12761e-02  -3.95638e-02 
 -4.31211e-02  -3.73597e-02  -1.83253e-02   1.47331e-02   5.11404e-02 
  7.52378e-02   7.56847e-02   5.37549e-02   2.24701e-02  -7.32894e-03 
 -2.54465e-02  -3.26206e-02  -3.31518e-02  -3.26175e-02  -3.67894e-02 
 -4.14966e-02  -4.07083e-02  -3.03616e-02  -1.43617e-02   9.60597e-04 
  7.65136e-03   1.13044e-02   1.25986e-02   1.95648e-02   2.93679e-02 
  3.64057e-02   3.55363e-02   2.92001e-02   2.10629e-02   1.10748e-02 
 -9.30329e-04  -1.59611e-02  -2.94075e-02  -3.56645e-02  -3.31334e-02 
 -2.37755e-02  -1.02709e-02   3.92208e-03   1.43602e-02   2.04354e-02 
  1.77513e-02   1.39315e-02   1.04572e-02   8.19043e-03   7.18578e-03 
  5.31696e-03   3.46908e-03  -2.14668e-03  -1.11720e-02  -2.10545e-02 
 -2.75740e-02  -2.79898e-02  -2.04205e-02  -1.23920e-02  -6.81646e-03 
 -4.53364e-03  -1.51146e-03   6.84292e-03   1.80876e-02   2.99209e-02 
  3.76006e-02   3.91061e-02   3.01420e-02   1.30346e-02  -9.30348e-03 
 -2.81683e-02  -3.49475e-02  -2.75461e-02  -8.29295e-03   1.29591e-02 
  2.58574e-02   2.59821e-02   1.30511e-02  -5.00128e-03  -1.81412e-02 
 -2.31731e-02  -1.79278e-02  -1.19773e-02  -1.22733e-02  -1.76065e-02 
 -2.77720e-02  -3.36590e-02  -3.07239e-02  -1.63677e-02   9.22759e-03 
  3.67019e-02   5.84294e-02   6.53145e-02   5.67848e-02   3.77720e-02 
  2.10089e-02   9.65080e-03   1.76635e-03  -5.58615e-03  -1.72251e-02 
 -3.26173e-02  -4.40254e-02  -5.13895e-02  -4.83103e-02  -3.87227e-02 
 -2.18258e-02   9.51747e-04   2.00606e-02   3.20097e-02   2.93696e-02 
  1.59119e-02  -1.69973e-03  -1.17710e-02  -1.18427e-02  -1.42665e-03 
  7.62411e-03   1.01900e-02   9.29439e-03   8.01225e-03   1.12441e-02 
  2.15763e-02   3.37736e-02   3.76227e-02   2.81590e-02   4.62948e-03 
 -2.32670e-02  -4.49708e-02  -5.02467e-02  -4.07854e-02  -2.47884e-02 
 -1.16704e-02  -4.78156e-03   4.18093e-04   6.55273e-03   1.57847e-02 
  2.56890e-02   3.07639e-02   2.75299e-02   1.29141e-02  -7.88201e-03 
 -3.04103e-02  -4.27675e-02  -3.94281e-02  -2.16283e-02  -3.27655e-05 
  1.58308e-02   2.52046e-02   2.82535e-02   3.26967e-02   4.00351e-02 
  4.46681e-02   4.06016e-02   2.17780e-02  -6.70726e-03  -3.58599e-02 
 -5.43721e-02  -5.15433e-02  -3.40091e-02  -1.31616e-02  -3.64875e-03 
 -9.18595e-03  -2.31070e-02  -3.12235e-02  -2.35997e-02   8.01558e-05 
  2.91645e-02   4.74400e-02   4.81046e-02   3.36499e-02   1.66868e-02 
  6.68150e-03   6.41981e-03   1.24704e-02   1.78150e-02   1.46037e-02 
  4.15297e-03  -1.27723e-02  -2.84983e-02  -3.58731e-02  -3.21461e-02 
 -2.26480e-02  -1.13331e-02  -5.74771e-03  -7.50972e-03  -1.31419e-02 
 -1.63175e-02  -1.55669e-02  -9.89116e-03  -2.04811e-03   7.25992e-03 
  1.88916e-02   3.32786e-02   4.57174e-02   5.52908e-02   5.59506e-02 
  4.35392e-02   2.15827e-02  -6.63077e-03  -3.07735e-02  -4.10306e-02 
 -4.08668e-02  -3.52337e-02  -3.02787e-02  -2.91296e-02  -2.75978e-02 
 -2.13257e-02  -5.38224e-03   1.40349e-02   2.92899e-02   3.09869e-02 
  2.12549e-02   3.59069e-03  -1.26496e-02  -1.94926e-02  -1.57333e-02 
 -4.10739e-03   8.87033e-03   1.71595e-02   1.82127e-02   1.66235e-02 
  1.41945e-02   1.39325e-02   1.64912e-02   1.60301e-02   1.21968e-02 
  2.72012e-03  -9.11828e-03  -2.11848e-02  -2.85269e-02  -2.91048e-02 
 -2.28185e-02  -1.32150e-02  -7.03320e-03  -2.05495e-03  -6.18906e-04 
  2.13585e-03   8.10809e-03   1.26437e-02   1.46394e-02   1.29204e-02 
  5.37186e-03   1.15961e-03  -1.69268e-03  -1.57344e-03   2.69366e-03 
  3.87583e-03   5.50797e-03   5.82571e-03   4.12973e-03   2.69515e-03 
 -1.08605e-03  -6.16468e-03  -1.10265e-02  -1.68886e-02  -2.10079e-02 
 -2.09781e-02  -1.49382e-02  -6.92445e-03   3.61651e-03   1.34216e-02 
  1.90822e-02   2.41931e-02   2.60976e-02   2.78034e-02   2.48216e-02 
  1.71539e-02   6.44899e-03  -4.02838e-03  -1.37734e-02  -2.03213e-02 
 -2.55090e-02  -2.67482e-02  -2.54716e-02  -2.03652e-02  -1.64683e-02 
 -1.07058e-02  -5.79816e-03  -1.20459e-03   3.33485e-03   1.06086e-02 
  1.97757e-02   2.87015e-02   3.41173e-02   3.29059e-02   2.25667e-02 
  8.26555e-03  -5.85099e-03  -1.46189e-02  -1.58018e-02  -1.32844e-02 
 -9.85905e-03  -7.61015e-03  -8.47206e-03  -1.06015e-02  -1.28901e-02 
 -1.39240e-02  -1.17954e-02  -8.33334e-03  -4.84729e-03   8.22599e-04 
  5.53122e-03   1.19475e-02   1.74144e-02   2.27633e-02   2.42012e-02 
  2.37672e-02   1.93889e-02   1.22274e-02   3.35946e-03  -7.40450e-03 
 -1.50042e-02  -2.20770e-02  -2.71312e-02  -2.88371e-02  -2.57303e-02 
 -1.93704e-02  -1.05840e-02  -1.51088e-03   6.83800e-03   1.32021e-02 
  1.61218e-02   1.66984e-02   1.45105e-02   1.04924e-02   7.34884e-03 
  4.36148e-03   3.84187e-03   3.89173e-03   4.22644e-03   3.51438e-03 
  2.05866e-03  -8.21473e-04  -3.06464e-03  -3.94774e-03  -1.32870e-03 
  1.12652e-03   3.33148e-03   1.53092e-03  -2.62944e-03  -9.57607e-03 
 -1.58442e-02  -1.91975e-02  -1.76313e-02  -9.82133e-03  -2.03350e-03 
  6.17420e-03   1.07669e-02   1.30879e-02   1.28632e-02   1.17224e-02 
  1.01338e-02   7.63352e-03   6.12397e-03   2.20043e-03  -1.64862e-03 
 -5.19650e-03  -8.22946e-03  -1.01841e-02  -9.24340e-03  -8.00979e-03 
 -5.30903e-03  -2.17605e-03   7.09387e-05   2.61178e-03   4.77318e-03 
  7.30206e-03   1.04544e-02   9.02224e-03   5.79848e-03   1.72409e-03 
 -4.93433e-03  -8.58386e-03  -1.03024e-02  -9.95320e-03  -9.73125e-03 
 -1.03013e-02  -9.56030e-03  -8.00683e-03  -3.53720e-03   4.78483e-03 
  1.23338e-02   1.95764e-02   2.12233e-02   1.99217e-02   1.49933e-02 
  9.27596e-03   2.68604e-03  -1.45550e-03  -5.35322e-03  -7.78292e-03 
 -9.30440e-03  -8.60842e-03  -7.00694e-03  -5.86874e-03  -3.18675e-03 
 -1.02899e-03   1.56149e-03   2.99408e-03   3.19911e-03   3.09423e-03 
  2.80260e-04   1.30838e-04  -3.50810e-03  -3.01510e-03  -2.47657e-03 
 -2.36836e-03  -1.02036e-03  -4.55152e-04  -1.44651e-03  -3.37731e-03 
 -5.87483e-03  -6.79830e-03  -7.69996e-03  -5.22664e-03  -1.82034e-03 
  1.44786e-03   4.91358e-03   6.80816e-03   7.87172e-03   8.93874e-03 
  5.99229e-03   5.46128e-03   2.28019e-03   9.81927e-04  -1.64131e-04 
  3.87058e-04   1.27370e-03   4.15025e-03   7.43646e-03   8.10707e-03 
  8.39610e-03   5.21549e-03   3.35411e-03  -1.68572e-03  -4.74385e-03 
 -7.37897e-03  -8.46560e-03  -8.86451e-03  -8.03479e-03  -6.75612e-03 
 -4.20320e-03  -1.21708e-03   1.04624e-03   4.04293e-03   4.85027e-03 
  5.70472e-03   5.58679e-03   2.99974e-03   1.01983e-03  -2.95091e-03 
 -7.58702e-03  -9.83511e-03  -1.12934e-02  -9.93311e-03  -7.80575e-03 
 -4.17103e-03  -8.65071e-04   3.71460e-03   7.46874e-03   1.07092e-02 
  1.19025e-02   1.14513e-02   1.02768e-02   8.43519e-03   5.08477e-03 
  3.09700e-03   1.10851e-03  -2.84638e-04   9.16685e-04   3.59722e-04 
  1.84119e-03   2.62422e-03   1.26156e-03   2.12182e-04  -2.52751e-03 
 -5.53556e-03  -7.80392e-03  -1.08028e-02  -1.28570e-02  -1.23405e-02 
  0 0 0 0 0     0 0 0 0 0     0 0 0 0 0     0 0 0 0 0     0 0 0 0